ply
format ascii 1.0
element vertex 44
property float x
property float y
property float z
property uint8 red
property uint8 green
property uint8 blue
end_header
39.840282 120.624420 -30.386801 119 100 91
37.343044 123.762306 -30.710201 86 72 72
40.523907 112.359009 -25.945620 81 71 70
40.747982 130.119781 -28.955757 92 78 77
-22.254021 298.122955 -15.293613 101 95 95
12.824964 69.307854 2.459269 189 188 134
18.315866 79.756226 15.834334 227 225 176
23.789278 82.329590 -28.479567 86 78 91
-75.826538 493.572784 5.183850 117 109 120
12.100578 68.862656 17.169651 213 205 156
9.834037 70.784004 18.245754 201 195 153
23.693714 99.693817 -26.679214 104 91 82
20.491188 78.212990 -5.455189 166 157 114
15.366334 78.471291 -4.586745 169 171 168
-36.735737 333.789062 -11.863612 140 126 124
22.803579 93.751480 -29.179869 84 80 69
10.677172 74.164650 14.892713 202 193 150
4.664503 67.206131 4.088000 178 170 131
14.223438 70.770721 -0.362175 168 157 126
21.148077 71.073769 0.576806 117 103 100
-91.711861 512.880798 8.377361 118 116 128
-50.704967 516.216309 -5.775328 140 126 121
-79.728813 368.645050 0.456432 182 184 172
10.083877 75.951889 -4.627384 224 239 234
-79.728813 368.645050 0.456432 182 184 172
15.082342 84.872978 -10.114485 184 176 127
-67.345047 440.636200 -0.485856 182 182 174
12.477985 93.066483 -19.618820 88 89 80
-67.345047 440.636200 -0.485856 182 182 174
12.372477 94.977821 -21.796721 202 213 204
15.157840 89.964798 -15.444098 155 158 151
12.372477 94.977821 -21.796721 202 213 204
11.319061 94.052292 -20.125278 176 186 180
12.467192 99.487457 -25.220127 112 118 113
-77.589226 451.227509 2.790007 186 186 178
23.526623 88.508232 -28.949596 84 77 70
-77.589226 451.227509 2.790007 186 186 178
9.627934 90.289177 -9.838796 185 174 126
14.447664 72.765305 -2.132647 147 147 134
12.166094 84.248360 -9.970212 99 100 85
22.724045 97.759384 -29.639139 85 75 66
-73.721985 337.436646 -2.115573 127 126 131
21.805710 102.222717 -29.280155 71 65 53
11.126535 70.042603 1.589324 194 190 141
